-0.441095 0.123978 2.1199
-0.409043 -0.11159 3.24337
16.5199 -22.7552 -136.82
5.92764 2.30308 -51.5715
9.3926 -14.337 -83.0268
11.7885 10.3194 -106.911
-25.0849 23.7591 230.825
9.83465 8.96802 -90.8117
14.5092 15.9333 -134.987
11.7022 -17.1592 -108.854
11.6746 -17.1168 -108.618
7.46741 4.597 -71.7968
7.46741 4.597 -71.7968
7.46741 4.597 -71.7968
7.00833 -1.22168 -68.1438
10.8608 -16.5993 -105.938
3.24601 -4.95115 -31.2313
7.90661 4.13141 -78.2076
14.3733 16.3775 -144.297
6.1212 4.12273 -61.7297
-0.410391 -0.11597 4.17845
5.77506 4.03204 -59.961
7.44495 4.18391 -77.4344
13.6219 16.5334 -144.263
24.9308 31.8471 -265.799
6.00367 2.37228 -64.0739
6.84521 2.52682 -73.3018
27.5808 35.3191 -296.06
9.69966 -15.9787 -104.841
9.69966 -15.9787 -104.841
5.70707 2.79076 -62.2536
11.1136 -20.5554 -121.379
8.45774 -1.29959 -92.6415
5.03763 3.79163 -55.2027
-1.65201 -0.104295 14.0148
4.98844 3.89606 -55.6778
5.5488 3.8261 -61.9932
-1.36049 0.0117431 11.2428
9.11605 -15.2584 -102.845
9.11605 -15.2584 -102.845
6.22245 -0.633459 -70.3547
5.17593 3.86005 -58.4664
5.96621 2.29423 -67.8132
4.83188 4.39289 -54.8957
5.39755 3.63485 -61.5861
14.291 -20.5626 -164.007
4.65493 0.271114 -53.5559
5.56892 -0.91004 -64.6904
5.66664 3.51558 -65.9031
5.66664 3.51558 -65.9031
4.81645 0.134029 -56.3004
4.81645 0.134029 -56.3004
-0.620213 0.293222 7.23096
5.17796 1.84869 -60.9182
4.55389 3.89964 -54.0024
9.15215 -18.2745 -108.769
7.27524 8.09222 -86.4113
9.24266 11.94 -110.116
4.93613 2.6696 -58.9226
5.99048 -1.9594 -72.1976
5.46321 2.33336 -66.5398
5.30021 3.79438 -64.6459
7.1305 -5.06375 -87.4393
9.64086 -15.1539 -118.236
8.00705 -12.984 -98.3871
8.00705 -12.984 -98.3871
8.60904 -9.894 -106.994
8.60904 -9.894 -106.994
8.50962 -10.1472 -105.852
4.48957 0.0562093 -55.851
8.73255 1.4899 -108.822
5.06313 6.16186 -62.9977
6.45136 -4.22153 -80.7384
4.6002 -0.468258 -57.6322
-37.845 34.1319 465.108
5.21642 3.93439 -65.4604
5.22004 3.66381 -65.6366
4.17118 0.394392 -52.5168
6.48043 -4.93676 -81.8374
7.85097 -15.2532 -99.4024
4.37829 3.95152 -55.641
4.37829 3.95152 -55.641
5.97247 -3.89883 -76.3778
7.22694 -12.8231 -92.5762
7.47666 -8.72317 -95.9332
7.21715 -12.9198 -92.6037
7.10516 -12.4658 -91.2526
7.49406 -12.7366 -96.6017
-45.0524 18.5748 581.482
-45.0524 18.5748 581.482
6.17303 -4.69045 -79.7785
4.24904 1.46777 -54.9497
5.03788 3.74211 -65.1241
7.19683 -12.1543 -93.1755
5.13841 -1.04621 -66.5465
5.55434 -2.80408 -71.9606
5.2481 3.69357 -68.1891
4.29205 -0.215254 -56.1155
5.00918 2.37754 -65.4894
6.91911 -12.2521 -90.9202
4.83334 4.01164 -63.6599
5.70037 -3.96395 -75.3384
5.78579 -4.35585 -76.5794
8.04206 -17.9078 -106.674
5.13114 3.47117 -68.1236
5.38129 -2.61939 -71.7462
5.04673 -0.877751 -67.3172
4.49517 0.100447 -60.1237
9.14305 13.0811 -123.528
4.52666 2.45058 -61.5698
4.82609 2.05966 -66.5982
7.60069 -12.5792 -105.46
5.07305 2.40355 -71.2194
3.7982 0.368951 -53.4981
4.51431 2.56464 -63.8014
9.9888 15.9969 -141.21
9.9888 15.9969 -141.21
4.73916 3.98817 -66.9395
6.4785 -12.3096 -92.9151
7.26257 -13.4173 -104.536
4.52979 4.28174 -65.1896
-3.91999 1.77917 56.3772
9.15942 -17.3439 -137.16
9.4583 -17.2114 -142.062
6.97794 -13.4668 -105.535
-0.358937 0.217547 5.37478
-0.385251 -0.320432 6.18267
6.11282 -14.4107 -95.2182
6.65281 7.67514 -105.466
5.98393 -12.7174 -97.0478
6.08267 -13.551 -99.8127
-16.1394 31.5943 270.014
-23.5941 -6.81568 451.04
4.70066 -13.5147 -91.3667
-4.80588 8.99905 93.8111
-4.80588 8.99905 93.8111
4.66039 -13.3264 -90.8552
-4.77275 8.85714 93.281
-4.77275 8.85714 93.281
4.44456 -12.3362 -88.2156
5.87684 -19.668 -120.624
4.32917 -13.4012 -95.0983
5.41288 -16.8164 -122.664
5.51051 -17.7798 -131.757
