-1.30532 0.0636334 2.69916
-1.23557 -0.0133701 2.67101
-1.25769 0.0110272 2.68049
-1.38886 0.137525 2.73201
-1.22948 -0.0258036 2.66869
-1.4694 0.196327 2.76271
-1.16644 0.0568092 2.67572
-1.29009 0.0322822 2.69532
-1.47247 0.201372 2.76527
-1.35258 0.0935741 2.72007
-1.34007 0.0819551 2.71532
-1.46286 0.219923 2.76552
-1.4121 0.143931 2.74376
-1.20187 -0.141441 2.64692
-1.30371 0.0368749 2.70217
-1.48163 0.215394 2.77243
-1.21467 -0.071137 2.66311
-1.35874 0.0885687 2.72452
-1.4779 0.189871 2.76999
-1.43297 0.151067 2.75374
-1.42152 0.141934 2.74966
-1.50514 0.210445 2.78075
-1.49623 0.196717 2.77917
-1.3975 0.108252 2.74148
-1.3975 0.108252 2.74148
-1.28578 0.00176231 2.69872
-1.28578 0.00176231 2.69872
-1.52266 0.201835 2.79051
-1.44954 0.142385 2.7636
-1.33189 0.021515 2.71558
-1.4416 0.122595 2.76
-1.25534 -0.0659404 2.6841
-1.30809 0.00301842 2.70902
-1.55334 0.212751 2.80647
-0.619905 -0.0640375 2.52849
-1.32799 0.00430148 2.71771
-1.26749 -0.0698328 2.69035
-1.28361 -0.0485593 2.69908
-1.27279 -0.0749554 2.69344
-1.46796 0.251392 2.7931
-1.32535 -0.0129838 2.72054
-1.24897 -0.155638 2.67606
-1.48649 0.260477 2.80209
-1.58135 0.208053 2.82624
-1.45961 0.226247 2.79312
-1.48292 0.263539 2.8051
-1.45727 0.234153 2.79548
-1.30259 -0.0724216 2.7106
-1.49783 0.261155 2.81208
-1.30643 -0.0768008 2.71224
-1.35018 -0.0148955 2.73663
-1.283 -0.0916499 2.705
-1.46461 0.232536 2.80246
-1.46649 0.228137 2.80366
-1.35356 -0.0222344 2.73891
-1.32277 -0.0828651 2.72208
-1.32503 -0.0783327 2.72377
-1.30321 -0.165796 2.70357
-1.55741 0.183321 2.8322
-1.56089 0.229751 2.8395
-1.33991 -0.0792799 2.73296
-1.31481 -0.152142 2.71625
-1.31883 -0.146014 2.71891
-1.55649 0.231409 2.84456
-1.59182 0.319969 2.8653
-1.33835 -0.0842933 2.73551
-1.31745 -0.088091 2.73188
-1.30756 -0.0866688 2.73058
-1.51697 0.235037 2.841
-1.28761 -0.0877264 2.73858
-1.29141 -0.0800191 2.74402
-0.0244366 -0.0171193 2.42866
-1.52666 0.252046 2.8681
-1.32555 -0.117291 2.75112
-1.53664 0.235139 2.87004
-1.31668 -0.0590148 2.75859
-1.53505 0.263167 2.87878
-1.53084 0.248172 2.87599
-1.31149 -0.0765945 2.75869
-1.33247 -0.0570142 2.76912
-1.31836 -0.0668983 2.76337
-1.34998 -0.113777 2.76687
-1.33603 -0.054216 2.77242
-1.32727 -0.0185279 2.7772
-1.31122 -0.0443491 2.76789
-1.35806 -0.117525 2.77254
-1.32118 -0.0305589 2.77373
-1.34045 0.0207784 2.78871
-1.30294 -0.0029304 2.77249
-1.33428 -0.0677671 2.77393
-1.34484 -0.0594994 2.77946
-1.64516 0.34625 2.93517
-1.38855 0.0773257 2.81437
-1.39212 0.0812156 2.81634
-1.3382 -0.082157 2.77415
-1.33891 -0.0641668 2.77729
-1.36493 -0.120094 2.77744
-1.3641 0.0490915 2.80299
-1.4025 0.0894163 2.82176
-1.54456 0.237361 2.88956
-1.54456 0.237361 2.88956
-1.35381 -0.105143 2.77677
-1.34788 0.0240523 2.79436
-1.32439 -0.0419207 2.77662
-1.34427 -0.0136339 2.78811
-1.4232 0.113136 2.83309
-1.36679 0.0444684 2.80509
-1.32522 -0.0477272 2.77745
-1.37377 0.0520076 2.80909
-1.41857 0.104205 2.83176
-1.40303 0.0851185 2.82402
-1.35862 0.0292414 2.80142
-1.34605 -0.0777998 2.78185
-1.35421 0.0221124 2.79994
-1.36607 -0.103699 2.7852
-1.3479 -0.0947307 2.78057
-1.3479 -0.0947307 2.78057
-1.35945 -0.0526691 2.79194
-1.38097 -0.127863 2.78756
-1.35207 -0.0844467 2.78474
-1.54298 0.22622 2.89443
-1.54298 0.22622 2.89443
-1.56282 0.24713 2.90395
-1.41798 -0.167174 2.79467
-1.48614 0.167522 2.86796
-1.48614 0.167522 2.86796
-1.4762 0.157453 2.86326
-1.37813 0.0451578 2.81407
-1.59673 0.283078 2.92118
-1.34977 -0.0337056 2.79308
-1.33299 0.00210286 2.79253
-1.41433 0.0885483 2.83317
-1.38944 -0.114613 2.79447
-1.36402 0.0252121 2.80713
-1.37173 -0.108988 2.78939
-1.37039 -0.0611934 2.79661
-1.57123 0.257628 2.91014
-1.37778 0.0351754 2.81535
-1.36277 -0.0853383 2.79246
-1.36021 -0.0121103 2.8029
-1.42544 0.0926253 2.84078
-1.39533 -0.131127 2.79704
-1.37201 0.0236163 2.81377
-1.60659 0.282924 2.93043
-1.5722 0.242144 2.91399
-1.34656 -0.0028396 2.8017
-1.36982 -0.0818267 2.7981
-1.64998 0.320614 2.95149
-1.38782 0.0392977 2.82303
-1.67733 0.344946 2.96453
-1.55673 0.223509 2.90788
-1.6592 0.3281 2.95684
-1.44512 0.104898 2.85357
-1.68995 0.351157 2.97169
-1.39767 -0.107364 2.80677
-1.39767 -0.107364 2.80677
-1.44415 0.0989368 2.85386
-1.36188 0.00629274 2.81291
-1.37106 -0.0449894 2.80874
-1.60264 0.253822 2.9331
-1.39206 -0.0748223 2.81248
-1.37236 -0.0403478 2.81089
-1.37236 -0.0403478 2.81089
-1.36909 -0.0490019 2.80876
-1.36965 0.0110334 2.81827
-1.39579 0.0270855 2.83007
-1.42733 0.0636765 2.84678
-1.44935 0.089748 2.85852
-1.62461 0.261285 2.94497
-1.67466 0.323029 2.97255
-1.62468 0.256476 2.94695
-1.38712 -0.0399702 2.82067
-1.4004 -0.0210885 2.82854
-1.68428 0.329913 2.97824
-1.38365 -0.0466258 2.81918
-1.63678 0.26338 2.95361
-1.43495 -0.13966 2.82309
-1.61731 0.263607 2.94681
-1.43702 -0.145382 2.82463
-1.71409 0.351664 2.99513
-1.49523 0.100261 2.88416
-1.35461 0.064504 2.83782
-1.65285 0.293047 2.96659
-1.4205 -0.00508581 2.84217
-1.38169 -0.0875846 2.82019
-1.45186 0.08718 2.86992
-1.38986 0.00363611 2.83278
-1.73067 0.362846 3.00564
-1.41654 -0.0160727 2.84102
-1.40668 -0.0388651 2.83396
-1.43257 0.0126794 2.85303
-1.4765 -0.124045 2.85406
-1.43174 -0.0843121 2.84396
-1.72092 0.329685 3.01304
-1.72092 0.329685 3.01304
-1.4807 -0.116948 2.86109
-1.46981 0.0368769 2.88058
-1.83309 0.371432 3.09555
-1.86784 0.38241 3.11665
-0.708466 -0.0170606 2.49347
-0.823787 -0.0814153 2.53329
-0.832905 -0.062556 2.54188
-0.833528 -0.0647951 2.54221
-0.784552 -0.0802271 2.52479
-0.834034 -0.073568 2.54103
-0.842707 -0.0550505 2.54927
-0.839342 -0.0769496 2.54448
-0.842253 -0.0594312 2.54948
-0.848969 -0.0530068 2.55452
-0.847605 -0.0568648 2.55328
-0.844666 -0.0777933 2.54865
-0.874564 -0.00368244 2.57584
-0.866332 -0.0220835 2.56965
-0.844351 -0.0792218 2.54964
-0.849933 -0.0608348 2.55569
-0.87583 0.000300775 2.57872
-0.87583 0.000300775 2.57872
-0.851424 -0.0576279 2.5569
-0.853428 -0.0552623 2.55809
-0.84387 -0.0906429 2.54747
-0.847264 -0.078757 2.55188
-0.857651 -0.0544504 2.56141
-0.857651 -0.0544504 2.56141
-0.863864 -0.0377082 2.56752
-0.866468 -0.0325737 2.56983
-0.863391 -0.0472975 2.56593
-0.86119 -0.0554385 2.56413
-0.858772 -0.0659429 2.56161
-0.883805 0.00576096 2.58791
-0.883805 0.00576096 2.58791
-0.884861 -0.00326035 2.58561
-0.884861 -0.00326035 2.58561
-0.892556 0.0207081 2.59503
-0.865708 -0.0547059 2.56771
-0.870005 -0.0422215 2.57209
-0.895082 0.0223646 2.59722
-0.862538 -0.0672084 2.56436
-0.864952 -0.0591326 2.56708
-0.880292 -0.0200166 2.58155
-0.880292 -0.0200166 2.58155
-0.862436 -0.0714832 2.56401
-0.890124 -0.00364241 2.58996
-0.872114 -0.0498551 2.5732
-0.857728 -0.0987177 2.55798
-0.871568 -0.0523354 2.57252
-0.891618 -0.00207738 2.59139
-0.877477 -0.0365476 2.57826
-0.890164 0.00397564 2.59326
-0.87508 -0.0508338 2.57544
-0.894721 0.00234896 2.59518
-0.874687 -0.0545344 2.5747
-0.864992 -0.0873431 2.56443
-0.881507 -0.0347204 2.58171
-0.894756 -0.00545657 2.59367
-0.862143 -0.101744 2.561
-0.89993 0.0149568 2.60193
-0.888286 -0.0289635 2.58729
-0.898059 0.00701404 2.60024
-0.896631 -0.01898 2.59421
-0.885527 -0.0504426 2.58312
-0.904652 -0.00382084 2.60127
-0.876566 -0.0857147 2.5738
-0.880357 -0.0871601 2.57674
-0.883278 -0.0797821 2.57982
-0.89994 0.0170352 2.60999
-0.881521 -0.0923015 2.57708
-0.882905 -0.0890007 2.57858
-0.902127 0.0155554 2.61215
-0.890458 -0.0678202 2.5873
-0.88169 -0.113333 2.57523
-0.905235 0.0178754 2.61508
-0.919781 -0.0013016 2.61455
-0.906342 0.0192586 2.61782
-0.91777 0.00718444 2.61779
-0.892274 -0.0883539 2.5866
-0.905074 -0.0559057 2.59919
-0.90028 -0.0686537 2.59557
-0.89587 -0.0956218 2.5882
-0.907377 0.010483 2.6189
-0.902136 -0.0711223 2.59697
-0.899974 -0.0921979 2.5925
-0.90012 -0.0906135 2.59309
-0.898853 -0.12157 2.58673
-0.931165 -0.00759584 2.62415
-0.905421 -0.0748783 2.59939
-0.905141 -0.0910082 2.59754
-0.904457 -0.117209 2.59368
-0.905048 -0.114972 2.59454
-0.907813 -0.0951804 2.59954
-0.929367 0.0348132 2.64013
-0.909329 -0.0930732 2.60079
-0.909237 -0.0892621 2.60158
-0.911211 -0.0807466 2.60425
-0.925358 0.0188882 2.63652
-0.925358 0.0188882 2.63652
-0.901982 -0.0929332 2.60058
-0.906413 -0.0922676 2.60334
-0.906413 -0.0922676 2.60334
-0.945692 0.00488012 2.64039
-0.935281 0.0327423 2.64637
-0.914442 -0.112431 2.60317
-0.928754 0.0270544 2.64303
-0.919959 -0.0397043 2.62192
-0.931485 -0.0566416 2.62362
-0.875437 -0.0370208 2.61115
-0.933118 -0.0521946 2.62576
-0.933118 -0.0521946 2.62576
-0.947634 -0.0131031 2.64163
-0.94525 0.00765034 2.64719
-0.90868 -0.0974154 2.60981
-0.910671 -0.10796 2.60862
-0.90936 -0.0989257 2.61027
-0.683698 -0.0338855 2.51454
-0.908473 -0.0961086 2.61079
-0.917736 -0.0672879 2.62111
-0.931682 -0.0324316 2.63492
-0.940399 -0.00700036 2.64453
-0.912245 -0.083789 2.61646
-0.936417 -0.0177701 2.64083
-0.910677 -0.0956761 2.6135
-0.940445 -0.00890566 2.64479
-0.909567 -0.0914055 2.61427
-0.936889 -0.0202779 2.64149
-0.943277 -0.0048771 2.64835
-0.91517 -0.0823993 2.61963
-0.932414 -0.0370179 2.63635
-0.9123 -0.09298 2.61658
-0.927295 -0.0569858 2.62997
-0.942443 -0.00943802 2.64745
-0.912341 -0.0914059 2.61731
-0.912341 -0.0914059 2.61731
-0.934688 -0.0352496 2.63865
-0.920046 -0.106383 2.61741
-0.920046 -0.106383 2.61741
-0.934416 -0.038681 2.63846
-0.91698 -0.0851554 2.62178
-0.923201 -0.105335 2.6205
-0.923201 -0.105335 2.6205
-0.938842 0.0193763 2.65764
-0.91696 -0.0603435 2.62974
-0.919162 -0.0919326 2.62397
-0.921995 -0.0846986 2.62671
-0.920477 -0.0883827 2.62574
-0.927089 -0.105273 2.62448
-0.923654 -0.0837257 2.62856
-0.930958 -0.0185218 2.64809
-0.942739 0.0157617 2.66206
-0.921704 -0.0708012 2.63241
-0.920046 -0.0802731 2.6297
-0.930063 -0.106725 2.62744
-0.921166 -0.0751514 2.63149
-0.919231 -0.0612387 2.63452
-0.943319 0.0184968 2.66395
-0.922667 -0.056649 2.63697
-0.922667 -0.056649 2.63697
-0.917685 -0.0650154 2.6333
-0.925428 -0.0888178 2.63074
-0.92789 -0.085682 2.63269
-0.926493 -0.0875224 2.63217
-0.932774 -0.107772 2.63006
-0.926807 -0.0466693 2.64223
-0.930538 -0.0329523 2.64705
-0.925018 -0.0554504 2.63976
-0.923908 -0.0794521 2.63371
-0.933091 -0.0250513 2.65063
-0.927731 -0.0482026 2.64335
-0.928653 -0.0457551 2.64457
-0.933493 -0.0280144 2.65086
-0.927548 -0.0537124 2.6427
-0.924942 -0.0608901 2.6401
-0.930279 -0.092617 2.63508
-0.927612 -0.0563415 2.64273
-0.927612 -0.0563415 2.64273
-0.934293 -0.101998 2.63479
-0.931345 -0.0989566 2.63456
-0.960004 0.0478532 2.68268
-0.937938 -0.110718 2.63491
-0.950013 0.0165444 2.67103
-0.934017 -0.123215 2.63127
-0.940183 -0.0146088 2.65931
-0.942529 -0.00762715 2.66206
-0.941499 -0.0108492 2.66085
-0.932415 -0.0441025 2.64903
-0.931653 -0.0481302 2.64778
-0.953162 0.0269596 2.67568
-0.930507 -0.0765961 2.64077
-0.926614 -0.0634532 2.64252
-0.930396 -0.0552913 2.64606
-0.95143 0.0198045 2.67353
-0.931185 -0.0811744 2.64127
-0.932402 -0.0518876 2.64883
-0.935735 -0.0955741 2.64015
-0.942825 -0.111976 2.63952
-0.95951 0.0322691 2.68284
-0.946658 -0.0225113 2.66259
-0.95504 0.0179746 2.6773
-0.961822 0.0375112 2.68542
-0.963737 0.039736 2.68736
-0.947106 -0.0106645 2.66733
-0.96667 0.0456826 2.69072
-0.947292 -0.117463 2.64304
-0.944657 -0.103659 2.64503
-0.946699 -0.101683 2.64933
-0.96951 0.0382324 2.69439
-0.942873 -0.0792576 2.65422
-0.944163 -0.0724598 2.65638
-0.95381 -0.120017 2.64955
-0.971069 0.0401504 2.69621
-0.943052 -0.0817821 2.65421
-0.95519 -0.115404 2.65149
-0.944751 -0.0762456 2.65647
-0.956273 -0.117502 2.65253
-0.975138 0.0460073 2.70109
-0.954377 -0.0303455 2.67271
-0.969578 0.0297092 2.69477
-0.943353 -0.0664095 2.65997
-0.971824 0.0350851 2.69733
-0.971824 0.0350851 2.69733
-0.946951 -0.0830067 2.65749
-1.08436 -0.0221012 2.72286
-0.978218 0.0491128 2.70465
-0.948324 -0.0707958 2.66193
-0.94809 -0.0790094 2.65993
-1.17564 -0.0557368 2.75333
-0.966627 -0.11672 2.66346
-0.959275 -0.0950998 2.66541
-0.949963 -0.00812813 2.68631
-1.01558 0.0479952 2.73668
-6.13834 1.06942 5.5012
-0.427995 0.143906 2.55833
-0.329816 -0.0443195 2.52103
1.10857 -0.0863266 2.48692
-0.435427 0.196378 2.56909
-0.358557 0.0044618 2.53288
-0.359711 -0.000414231 2.5332
-0.358617 -0.000689573 2.53324
-0.436345 0.179168 2.57172
-0.391589 0.0242307 2.54353
-0.392978 0.0138204 2.54389
-0.364228 -0.0233718 2.53546
-0.452539 0.164011 2.57377
-0.375991 0.0103076 2.54191
-0.442319 0.175012 2.57482
-0.456286 0.158491 2.57449
-1.3605 0.123022 2.68988
-0.456649 0.14931 2.57358
-0.345482 -0.0755115 2.52715
-0.395502 0.0194241 2.54724
-0.378881 0.012564 2.54454
-0.361539 -0.0596595 2.53232
-0.357275 -0.0820056 2.52994
-0.386896 0.00999861 2.54711
-0.371023 -0.0284558 2.54001
-0.403132 0.0238457 2.55199
-0.403132 0.0238457 2.55199
-0.440688 0.0997641 2.56843
-0.453359 0.120354 2.57399
-0.358617 -0.093104 2.53139
0.907021 -0.047337 2.50748
-0.410927 0.025964 2.55567
-0.410927 0.025964 2.55567
-0.428726 0.0670002 2.56408
-0.434415 0.0791094 2.56683
-0.377902 -0.0442995 2.54149
-0.358644 -0.0973853 2.53149
-0.462583 0.163443 2.58369
-0.384125 -0.0298057 2.5448
-0.471961 0.146553 2.58279
-0.471961 0.146553 2.58279
-0.37353 -0.0554003 2.54048
-0.417152 0.0235881 2.55875
-0.418678 0.0429904 2.56231
-0.404528 -0.0020804 2.5539
-0.459744 0.111478 2.57823
-0.485761 0.156378 2.58968
-0.438795 0.0559346 2.56904
-0.438795 0.0559346 2.56904
-0.426664 0.0254584 2.563
-0.47072 0.165031 2.59032
-0.466088 0.110209 2.5815
-0.4131 -0.0050724 2.55722
-0.421013 0.0146377 2.56134
-0.377336 -0.0898609 2.5402
-0.409954 -0.0152266 2.55615
-0.486443 0.144342 2.59053
-0.490905 0.149588 2.59235
-0.492738 0.153444 2.59353
-0.378484 -0.0799709 2.54345
-0.372516 0.0468376 2.56397
-0.456539 0.0700774 2.57694
-0.438513 0.0316813 2.56883
-0.478992 0.114535 2.58742
-0.379826 -0.10165 2.54193
-0.437043 0.19123 2.5945
-0.445307 0.0350422 2.5722
-0.404579 -0.0527197 2.55376
-0.464579 0.0743559 2.5812
-0.501899 0.145544 2.59735
-0.446976 0.026084 2.57199
-0.446976 0.026084 2.57199
-0.508188 0.158606 2.60071
-0.488264 0.118987 2.59198
-0.485803 0.112782 2.59075
-0.390818 -0.112033 2.54402
-0.441056 0.171574 2.59496
-0.459398 0.219693 2.60485
-0.459398 0.219693 2.60485
-0.4573 0.0314302 2.57628
-0.481947 0.0885064 2.58895
-0.481947 0.0885064 2.58895
-0.511197 0.146343 2.6021
-0.456982 0.189759 2.60266
-0.489992 0.0852021 2.59204
-0.493021 0.0933547 2.59374
-0.505003 0.112912 2.59862
-0.527234 0.159836 2.60912
-0.759043 0.13964 2.65888
-0.468632 0.0226596 2.58072
-0.465051 0.169954 2.60329
-0.452013 0.00796072 2.57693
-0.429418 -0.0481752 2.5652
-0.541506 0.159669 2.61499
-0.453503 0.178949 2.60568
-0.435976 -0.0512625 2.56849
-0.458785 0.186322 2.60811
-0.45289 0.172041 2.60518
-0.414511 -0.110204 2.55731
-0.440511 -0.0554539 2.57036
-0.427743 -0.122782 2.56072
-0.473476 -0.00435293 2.58827
-0.473476 -0.00435293 2.58827
-0.457554 -0.053111 2.57958
-0.531806 0.170585 2.62879
-0.436792 -0.121408 2.56919
-0.466964 0.183514 2.62135
-0.521082 0.171184 2.62984
-0.457714 -0.129982 2.57528
-0.484524 0.227927 2.63735
-0.477455 0.214997 2.63428
-0.462522 -0.117877 2.58189
-0.493877 0.233885 2.64152
-0.501605 -0.0664148 2.59659
-0.488666 0.176848 2.63238
-0.473631 0.19573 2.63333
-0.430722 -0.0734609 2.58591
-0.506975 0.174491 2.63799
-0.481635 0.184244 2.6362
-0.898047 0.133907 2.70556
-0.484194 0.191559 2.64064
-0.427438 -0.0500127 2.59535
-0.523696 0.241974 2.66139
-0.457899 -0.0873536 2.59864
-0.437897 -0.0538608 2.60047
-0.441474 -0.0460056 2.60289
-0.480712 0.131672 2.63821
-0.428724 -0.0277379 2.60353
-0.428724 -0.0277379 2.60353
-0.428724 -0.0277379 2.60353
-0.451473 -0.0382147 2.60634
-0.502883 0.17513 2.64971
-0.187744 0.0291849 2.5708
-0.485773 0.130142 2.64162
-0.436832 -0.0258116 2.6082
-0.464204 -0.0798389 2.60503
-0.459329 -0.0707878 2.60553
-0.461912 0.0736296 2.62888
-0.537015 0.244061 2.66976
-0.442603 0.0242113 2.61781
-0.453003 -0.0466491 2.60892
-0.439808 -0.0303333 2.60912
-0.511731 0.181685 2.65644
-0.471488 -0.0840354 2.60702
-0.51767 0.203834 2.66112
-0.505282 0.168089 2.65328
-0.505282 0.168089 2.65328
-0.457119 -0.040192 2.61149
-0.489307 0.129044 2.64471
-0.489307 0.129044 2.64471
-0.45403 0.0413006 2.62442
-0.454798 -0.0581288 2.60895
-0.466408 0.0737698 2.63215
-0.448777 0.0265005 2.62161
-0.491382 0.125157 2.64621
-0.520712 -0.126322 2.61276
-0.476162 -0.0869576 2.61002
-0.454002 0.0339366 2.62527
-0.525761 0.203946 2.66635
-0.452354 -0.0192127 2.61704
-0.458886 -0.0543952 2.61293
-0.53918 0.227032 2.67331
-0.439373 0.00496993 2.61902
-0.548182 0.241757 2.6776
-0.481635 -0.0888287 2.6129
-0.543879 0.23185 2.67563
-0.461536 -0.0680622 2.61256
-0.45915 -0.0121037 2.62106
-0.498805 0.130421 2.65154
-0.464088 -0.0594344 2.61484
-0.464088 -0.0594344 2.61484
-0.515236 0.166547 2.66076
-0.495297 0.12271 2.65004
-0.505186 0.142602 2.65515
-0.55105 0.244757 2.68004
-0.477671 0.0775804 2.6399
-0.477671 0.0775804 2.6399
-0.481946 0.0856982 2.64205
-0.520409 0.172046 2.6637
-0.467785 -0.0654524 2.61625
-0.481645 0.0809183 2.6423
-0.447151 0.0121694 2.62462
-0.47171 -0.0602933 2.61919
-0.45364 0.0158756 2.6278
-0.534985 0.185633 2.67129
-0.491876 -0.0947426 2.61847
-0.554806 0.228451 2.68427
-0.467082 -0.0240683 2.6268
-0.467082 -0.0240683 2.6268
-0.545868 0.190057 2.67684
-0.46587 -0.0310583 2.62579
-0.559942 0.232929 2.68686
-0.541124 0.191942 2.67744
-0.549285 0.187334 2.67879
-0.549285 0.187334 2.67879
-0.470811 -0.0304612 2.62878
-0.470811 -0.0304612 2.62878
-0.570395 0.245744 2.69315
-0.654543 0.119127 2.6931
-0.545672 0.190283 2.67964
-0.554297 0.210638 2.68502
-0.578663 0.252748 2.69781
-0.736951 0.196866 2.72375
-0.667346 0.10291 2.69438
-0.710173 0.167151 2.71752
-0.586949 0.233206 2.70607
-0.586949 0.233206 2.70607
-0.599268 0.255013 2.71252
-0.74778 0.183669 2.73765
-0.596793 0.258805 2.71751
-0.184985 -0.0406043 2.5846
-0.775696 0.19494 2.75175
0.457004 0.0028049 2.53917
-0.796244 0.20291 2.76429
-0.650033 0.25884 2.7469
-0.672396 0.265949 2.75827
0.15141 0.101729 2.55755
0.141908 0.193984 2.59608
0.139054 -0.0478306 2.55328
0.107232 0.00582154 2.55985
0.10152 0.000383828 2.56079
0.0960557 0.00629916 2.56334
0.0669571 0.0277712 2.56747
0.0828577 0.0127009 2.56643
0.0901807 -0.0242809 2.56148
0.0901807 -0.0242809 2.56148
0.104738 -0.0558022 2.55781
0.0741544 0.0154827 2.56786
0.0295878 0.159123 2.59016
0.107814 -0.0820725 2.55565
0.0542549 0.0227932 2.5693
0.06874 0.0125509 2.56957
0.0758555 -0.0297685 2.56392
0.0805482 -0.0427781 2.56246
0.0805482 -0.0427781 2.56246
0.075072 -0.0348467 2.56396
0.0451292 0.0280478 2.57249
0.0451292 0.0280478 2.57249
0.0957084 -0.0894313 2.55722
0.0818006 -0.0492458 2.56251
0.0115206 0.130977 2.5891
0.392663 0.067862 2.63029
0.0356837 0.0302651 2.5748
0.0356837 0.0302651 2.5748
-0.00881039 0.166676 2.59583
0.00496363 0.126289 2.58993
0.0704149 -0.0469004 2.56472
-0.00251523 0.152738 2.59447
0.0853063 -0.101572 2.55755
0.0908405 -0.106236 2.55794
0.0706009 -0.0555036 2.56457
-0.956024 0.387429 2.59961
0.0949302 0.219569 2.61419
0.0266083 0.0281661 2.57674
0.0920967 0.175153 2.60672
-0.0217753 0.169922 2.59992
0.0156052 0.0372107 2.57974
0.0144677 0.0303103 2.57949
0.0270534 -0.0033961 2.57515
-0.0294695 0.158142 2.60015
-0.0329751 0.163476 2.60143
-0.0329751 0.163476 2.60143
0.0285256 -0.0145597 2.57423
-0.0323669 0.167232 2.60232
-0.0323669 0.167232 2.60232
0.0675276 -0.0864612 2.56556
-0.00919537 0.0730114 2.58854
-0.00159327 0.0375286 2.58339
-0.0295933 0.126883 2.5975
0.0755847 0.190229 2.61515
0.0654775 -0.110678 2.56434
0.0759845 0.176735 2.61299
-0.0102103 0.0414189 2.58567
-0.0247042 0.0842464 2.59252
-0.0247042 0.0842464 2.59252
0.0313474 -0.0560588 2.57207
-0.00929461 0.0323287 2.58472
-0.0402686 0.125335 2.59962
0.0519213 -0.122473 2.56544
-0.610774 0.156727 2.58413
-0.0016104 -0.0507398 2.57954
0.0853881 0.213381 2.62927
0.0371329 0.180269 2.62257
0.0762927 0.216268 2.63251
0.440258 0.0146361 2.67201
0.064919 0.191077 2.62882
0.0634437 0.234486 2.63722
0.0151995 -0.126632 2.57462
0.0734738 0.198363 2.63159
-0.0137598 -0.134894 2.57523
-0.0050999 -0.134527 2.57684
-0.0050999 -0.134527 2.57684
0.054012 0.196209 2.63613
0.0497111 0.186132 2.63549
-0.0126586 -0.13259 2.58149
0.0926046 0.0083792 2.60829
-0.0284066 -0.133645 2.58411
0.0286149 0.1923 2.63986
0.409542 0.0393555 2.63452
0.0163156 0.247268 2.65005
0.0301714 -0.0768312 2.59449
0.042452 -0.0607159 2.59731
0.0527098 -0.0539935 2.59868
0.0760428 0.0169441 2.61172
0.029565 -0.0743791 2.59638
-0.0495698 -0.143298 2.58518
0.0413603 -0.0578583 2.59953
0.226166 -0.0192891 2.61869
0.0103023 -0.0816904 2.59633
0.0154256 0.183332 2.64188
0.0507905 0.00118996 2.61048
0.0221523 0.153311 2.63674
0.0229985 0.153141 2.63685
0.0229985 0.153141 2.63685
0.054498 -0.0258418 2.60755
0.0485498 -0.0140925 2.60944
-0.00455131 0.251028 2.65543
0.03475 0.0927287 2.62781
0.0460527 0.0526159 2.62101
0.0218337 -0.0402861 2.60508
0.036805 0.0784667 2.62576
0.0710622 0.017566 2.61572
0.0345776 0.0827113 2.62682
-0.0581599 -0.128816 2.59124
0.0065298 0.211852 2.64964
0.0663027 0.0131116 2.61549
0.0506746 0.0293835 2.61821
0.00337097 0.190927 2.64648
0.013145 -0.0754404 2.60088
-0.11623 -0.0641719 2.60126
0.0307004 -0.0542472 2.60481
0.0158305 0.137945 2.638
0.0158305 0.137945 2.638
0.025438 -0.0455947 2.60658
0.0286422 0.0906928 2.6301
0.0416612 -0.0235331 2.61068
0.0340245 0.000401954 2.61508
0.0437437 0.0318805 2.62078
0.0106188 -0.0372325 2.60901
0.0138907 0.13407 2.63903
0.040479 -0.028471 2.6112
-0.00555261 0.213083 2.6533
-0.0118752 0.224626 2.65562
0.0387317 0.0399603 2.62343
-0.017249 0.23615 2.65789
0.0548346 0.00932342 2.61866
-0.00687283 0.194581 2.65129
-0.0218663 0.241092 2.65948
-0.0145104 -0.0918543 2.60272
-0.0145104 -0.0918543 2.60272
-0.0291275 0.254323 2.66244
0.00366881 0.140091 2.64272
0.005162 0.132387 2.64163
-0.00177387 0.152753 2.64531
0.028162 -0.0274672 2.61431
0.028162 -0.0274672 2.61431
0.015246 0.09389 2.63553
0.0192724 0.0828349 2.63376
0.0229437 -0.0162816 2.61675
0.0463304 0.0171654 2.62255
-0.0246063 -0.0889022 2.60532
-0.0246063 -0.0889022 2.60532
0.0257732 0.0446068 2.62792
0.0119246 0.0894794 2.63578
-0.0291478 -0.0834765 2.60724
0.0361036 0.0212129 2.62475
0.0117108 0.000757313 2.62217
-0.0328116 0.197463 2.65667
0.00302016 -0.0545922 2.61325
-0.0334406 -0.0878765 2.60859
-0.100796 -0.134358 2.60158
-0.034663 0.188593 2.65595
-0.0405236 0.239451 2.66545
-0.0405236 0.239451 2.66545
-0.00743701 -0.0697953 2.61276
-0.0455705 0.243997 2.66718
0.00243829 0.00221079 2.62535
-0.036045 0.203669 2.66087
-0.0388684 -0.091128 2.61066
-0.0277444 -0.0351101 2.6197
-0.0258952 -0.0395978 2.61917
-0.0140429 -0.0664744 2.61538
-0.0140429 -0.0664744 2.61538
-0.0606054 0.258115 2.67156
-0.0559921 0.200928 2.66207
0.00269365 -0.0210603 2.62336
-0.0414512 0.20214 2.66237
-0.0483954 0.222841 2.66611
-0.0514764 0.231781 2.66808
-0.0171562 -0.0607585 2.61752
-0.039006 -0.106953 2.61034
-0.0457381 -0.0932553 2.61267
-0.0699201 0.265703 2.67485
-0.0215258 -0.0561177 2.62063
0.364941 0.0562508 2.6712
-0.0321505 -0.0304703 2.62555
-0.00857614 -0.026019 2.62654
-0.0292658 -0.00177488 2.63201
-0.0599141 -0.0995534 2.61656
-0.0176576 -0.0253003 2.62927
-0.0607831 -0.0354057 2.62941
-0.100749 0.222827 2.67429
-0.0483776 -0.0734956 2.62374
-0.0635539 -0.080417 2.62392
-0.0914566 0.248487 2.68108
-0.101724 0.270788 2.68552
-0.0570424 0.265036 2.68689
-0.0636677 -0.0852933 2.62742
-0.22481 0.208735 2.68014
0.324127 0.0791521 2.64777
-0.12055 0.269081 2.69048
-0.218617 -0.0645614 2.636
-0.289443 0.128667 2.66988
-0.307891 0.196915 2.68183
0.346046 -0.0947648 2.6312
-0.24561 -0.062846 2.63982
-0.310624 0.136853 2.67563
-0.327637 0.201588 2.68702
-0.110352 -0.109457 2.6311
-0.324253 0.163253 2.68207
-0.318098 0.13202 2.67749
-0.118276 -0.1101 2.63367
-0.347357 0.192165 2.68999
-0.35167 0.18521 2.69085
-0.124725 -0.111674 2.63569
-0.124725 -0.111674 2.63569
-0.379742 0.199958 2.69759
0.42104 -0.0323868 2.65282
-0.168017 0.27194 2.70761
-0.17597 0.259967 2.70679
-0.318662 -0.068602 2.65499
-0.188221 0.282487 2.71204
-0.407415 0.21198 2.70677
-0.18914 0.27574 2.71166
-0.152792 -0.110424 2.64557
-0.432062 0.227614 2.71442
-0.385947 0.240158 2.71773
-0.218379 0.291803 2.72111
-0.346863 -0.0999847 2.66436
-0.346313 -0.116571 2.6653
-0.272563 0.290703 2.7313
-0.352829 -0.10586 2.66795
-0.360627 -0.127403 2.66615
-0.357903 -0.127006 2.66643
-0.415065 0.260877 2.7352
-0.415065 0.260877 2.7352
-0.436774 0.257815 2.73567
-0.331927 0.304668 2.74109
-0.505441 0.245911 2.73887
-0.505441 0.245911 2.73887
-0.570421 0.271135 2.7618
0.619508 0.113001 2.67526
0.57082 0.140266 2.68025
0.572598 0.14107 2.68171
0.405519 0.192412 2.66239
0.544744 -0.0025582 2.65708
0.548083 -0.0342739 2.65272
0.535723 0.162343 2.69041
0.535723 0.162343 2.69041
0.535589 -0.0355676 2.65383
0.535589 -0.0355676 2.65383
0.546554 -0.070038 2.65072
0.544634 -0.0888414 2.64929
0.544881 -0.0888872 2.64939
0.545579 -0.0986532 2.64816
0.545579 -0.0986532 2.64816
0.517455 -0.0012872 2.65915
0.526787 -0.0418326 2.65566
0.528107 -0.0554535 2.65397
0.528069 -0.0473974 2.65595
0.528548 -0.0626126 2.65378
0.525795 -0.10771 2.64614
0.533305 -0.0704315 2.6539
0.529888 -0.107371 2.64775
0.533011 -0.0803213 2.65276
0.519356 -0.0693007 2.65486
0.522424 -0.119883 2.64783
0.5319 -0.125179 2.64928
0.652208 0.208932 2.73927
0.642816 0.182231 2.73381
0.50666 -0.130464 2.65631
0.500896 -0.141643 2.65373
0.598536 0.168548 2.72981
0.616282 -0.00135054 2.70238
0.595051 0.166895 2.73688
0.580774 -0.0387027 2.69432
0.481869 -0.137015 2.66038
0.60687 0.225142 2.75231
0.591875 0.00875059 2.70586
0.602886 0.191321 2.74526
0.60064 0.00330052 2.70753
0.598397 0.178048 2.74218
0.478877 -0.144803 2.66091
0.476549 -0.13891 2.66195
0.595109 0.17198 2.74108
0.583875 0.118291 2.72872
0.546315 -0.0734028 2.6863
0.571831 -0.036171 2.69723
0.579947 0.124972 2.72947
0.474207 -0.147315 2.66207
0.54973 -0.0696057 2.68862
0.593527 0.192231 2.74715
0.593623 0.201817 2.74961
0.581875 0.120901 2.73053
0.593586 0.21162 2.75199
0.707366 0.000492368 2.73173
0.591657 0.215841 2.75332
0.57789 0.073559 2.72146
0.585596 0.175767 2.74378
0.468764 -0.15247 2.66319
0.591619 0.22673 2.75631
0.563822 -0.0338697 2.69947
0.581703 0.170283 2.74242
0.562958 -0.00945513 2.70391
0.573998 0.0768148 2.72241
0.576473 0.0333632 2.71485
0.576003 0.126259 2.73319
0.533913 -0.0514323 2.69233
0.585006 0.00756836 2.71188
0.575555 0.119043 2.73193
0.576188 0.137775 2.73597
0.573402 0.0719429 2.72277
0.54195 -0.065644 2.69218
0.576389 0.165213 2.74241
0.539345 -0.0566978 2.69375
0.571371 0.0345144 2.71634
0.569265 0.078336 2.72448
0.569265 0.078336 2.72448
0.580162 0.0112184 2.71372
0.458814 -0.15068 2.66566
0.55492 -0.0238375 2.70329
0.509095 -0.115438 2.68053
0.526192 -0.0480399 2.69507
0.553379 -0.0377862 2.70153
0.56593 0.177602 2.74639
0.576882 0.213969 2.75617
0.576882 0.213969 2.75617
0.556732 -0.00644112 2.70924
0.446877 -0.151112 2.66729
0.528917 -0.0537479 2.69713
0.572338 0.203803 2.75497
0.5024 -0.118665 2.68207
0.547566 -0.00909185 2.70852
0.56867 0.182731 2.75008
0.51047 -0.0933301 2.68765
0.571918 0.228338 2.76145
0.566342 0.199089 2.75485
0.560871 0.181791 2.75023
0.567067 0.00572654 2.71638
0.540488 -0.00763817 2.71052
0.567501 0.234603 2.76391
0.545394 0.127198 2.73749
0.547442 0.0369091 2.72024
0.548709 0.180246 2.74934
0.523967 -0.065869 2.69798
0.421726 -0.161993 2.66629
0.53808 -0.0311307 2.70804
0.538108 -0.038884 2.70734
0.48385 -0.101661 2.68838
0.48385 -0.101661 2.68838
0.499034 -0.0456766 2.70217
0.492759 -0.0501865 2.70051
0.508844 -0.0777346 2.69858
0.527209 -0.0235842 2.71159
0.52952 -0.0360425 2.70985
0.477476 -0.10038 2.69059
0.506622 -0.0717975 2.70014
0.55795 0.239981 2.76961
0.544403 0.00556802 2.72021
0.51415 0.178255 2.75023
0.54515 -0.00111713 2.72018
0.506007 -0.0668633 2.70272
0.479526 -0.121363 2.68953
0.513203 -0.0122421 2.71374
0.545119 0.219498 2.76542
0.47339 -0.0981343 2.69299
0.523504 -0.0352883 2.71169
0.721583 0.0425937 2.76423
0.544542 0.238253 2.76974
0.526913 0.196657 2.75792
0.448762 0.148952 2.73547
0.484453 -0.0900907 2.69664
0.484453 -0.0900907 2.69664
0.520443 0.189951 2.75673
0.471654 -0.120092 2.69118
0.471654 -0.120092 2.69118
0.468637 -0.105794 2.69325
0.479798 -0.0936765 2.69772
0.442785 0.107241 2.72891
0.511229 -0.0334374 2.71314
0.472229 -0.128027 2.69133
0.490145 0.181928 2.75222
0.490145 0.181928 2.75222
0.491416 -0.0397884 2.71243
0.484885 -0.0843131 2.70399
0.474319 -0.0614093 2.70646
0.458195 -0.112026 2.69572
0.427279 0.0787968 2.7264
0.519058 0.205477 2.76743
0.462841 -0.0919258 2.70219
0.471339 -0.0816278 2.70699
0.471339 -0.0816278 2.70699
0.413205 0.181976 2.74907
0.422964 -0.0485508 2.70787
0.434381 0.196301 2.75677
0.455585 -0.0871904 2.70692
0.455585 -0.0871904 2.70692
0.41875 -0.00286319 2.71744
0.341849 0.0377483 2.71399
0.390479 -0.0683667 2.70256
0.373579 0.052318 2.72492
0.401096 0.190658 2.75387
0.390074 -0.0433308 2.70828
0.39652 0.186172 2.7537
0.373113 -0.0728579 2.70271
0.376011 0.178499 2.75113
0.358933 -0.0100872 2.71279
0.427152 -0.0994274 2.70672
0.497062 0.237173 2.78171
0.424206 -0.125131 2.70322
0.319732 0.14952 2.73957
0.319732 0.14952 2.73957
0.318895 0.0749942 2.72512
0.318375 0.122041 2.73465
0.484158 0.227365 2.77975
0.419854 -0.121077 2.70504
0.315606 0.0720034 2.72563
0.315408 0.11221 2.73369
0.315408 0.11221 2.73369
0.313533 0.094375 2.73005
0.313329 0.0778142 2.72694
0.313329 0.0778142 2.72694
0.313679 0.08529 2.72852
0.476337 0.241105 2.7833
0.312544 0.130425 2.73762
0.311277 0.120143 2.73545
0.418249 -0.126451 2.70544
0.309117 0.141063 2.74021
0.310126 0.140747 2.74045
0.414568 -0.121597 2.70683
0.468393 0.237695 2.7829
0.323458 -0.0855183 2.70296
0.30211 0.176432 2.74902
0.329328 -0.0468564 2.71066
0.308999 0.00472421 2.71732
0.299262 0.129636 2.73997
0.304946 0.184333 2.75157
0.298641 0.0189959 2.71896
0.404684 -0.102721 2.71157
0.307217 -0.0764791 2.70421
0.291567 0.0562993 2.72634
0.288956 0.0763648 2.73004
0.304182 -0.0544296 2.70823
0.304182 -0.0544296 2.70823
0.296011 -0.0355672 2.71071
0.296011 -0.0355672 2.71071
0.381653 0.21055 2.7699
0.290993 0.130416 2.74163
0.290118 0.180146 2.75276
0.283697 0.0995314 2.73627
0.28599 0.128408 2.74232
0.421834 0.233866 2.7827
0.394557 -0.105127 2.71439
0.281323 0.170332 2.7514
0.356547 0.20912 2.76946
0.356547 0.20912 2.76946
0.28102 -0.0387331 2.71216
0.27702 0.145972 2.7469
0.445352 0.255498 2.79182
0.308785 0.192399 2.76177
0.281511 -0.0480609 2.71282
0.266573 -0.0195796 2.71661
0.438482 0.253382 2.7923
0.388719 -0.121158 2.71476
0.290298 0.189622 2.76114
0.290298 0.189622 2.76114
0.264387 -0.0788472 2.70787
0.328843 0.21438 2.77198
0.257673 0.166752 2.75346
0.382076 -0.110681 2.71788
0.415436 0.245372 2.79121
0.316916 0.218042 2.77395
0.340603 0.226993 2.77901
0.412084 0.252466 2.79371
0.398963 0.246437 2.79227
0.309427 0.224361 2.7766
0.336958 0.230767 2.78343
0.285922 0.212921 2.77351
0.278984 0.20658 2.77201
0.278984 0.20658 2.77201
0.381446 0.249798 2.79392
0.236154 0.200267 2.7675
0.276405 0.221572 2.77679
0.226151 0.188448 2.7649
0.226151 0.188448 2.7649
0.252872 0.207546 2.77253
0.267604 0.212354 2.77574
0.343143 -0.118684 2.72279
0.230543 -0.0791708 2.71705
0.378253 0.261839 2.80034
0.215776 0.201093 2.77075
0.222475 -0.100515 2.71646
0.220417 -0.108736 2.71528
-0.0158378 0.251803 2.76366
0.269394 -0.127969 2.71893
1.35375 -0.0267621 2.94224
0.277919 0.231009 2.78724
0.330502 0.26063 2.80152
0.31278 0.256182 2.7986
0.201113 -0.116607 2.72035
0.194829 -0.11141 2.7215
0.224495 0.228506 2.78968
0.262914 0.256788 2.80163
0.215692 -0.128344 2.72415
0.191924 -0.117348 2.72415
0.149399 0.218209 2.78596
0.153662 0.217173 2.78694
0.153662 0.217173 2.78694
0.193064 0.242725 2.79648
0.171003 0.228156 2.79411
0.213162 0.259237 2.80497
0.140197 0.230074 2.79598
0.182163 0.248995 2.80464
0.184176 0.259382 2.80722
0.113913 0.237918 2.80226
0.0870499 0.25409 2.80862
0.0997523 0.250289 2.81102
3.75899 -0.503189 3.9655
0.305853 0.382827 2.56498
3.61592 -0.404741 3.90061
1.38013 0.114622 3.04051
3.2062 -0.156629 3.73431
3.20173 -0.19078 3.72502
3.18956 -0.156321 3.72443
3.19061 -0.15023 3.72584
3.19061 -0.15023 3.72584
2.79518 -0.154974 3.54414
3.16577 -0.184314 3.70633
3.10093 -0.208959 3.67539
2.79326 -0.154625 3.54217
3.61361 -0.498818 3.8589
3.16325 -0.143979 3.71025
3.15564 -0.133502 3.70652
3.58201 -0.487214 3.84046
3.45157 -0.417271 3.79268
3.37312 -0.378642 3.76216
2.74273 -0.140163 3.51791
3.56568 -0.483555 3.82838
3.45813 -0.426357 3.78971
3.10347 -0.138461 3.67782
3.49146 -0.444569 3.80114
3.50281 -0.451267 3.80403
3.36236 -0.377353 3.75355
3.10036 -0.130878 3.67669
3.02661 -0.204625 3.63273
3.2158 -0.305292 3.69874
3.19708 -0.296608 3.69178
3.11978 -0.2583 3.66376
3.09931 -0.249133 3.65598
3.30925 -0.354328 3.73101
3.00484 -0.192413 3.62282
3.10279 -0.253132 3.65576
3.10279 -0.253132 3.65576
2.99154 -0.179308 3.61919
3.0728 -0.125752 3.66177
3.32419 -0.365572 3.73198
3.40024 -0.407743 3.75784
3.3303 -0.371787 3.73282
3.29542 -0.351341 3.72036
3.47969 -0.451294 3.78388
2.97655 -0.191051 3.60774
2.97699 -0.197441 3.60687
3.37007 -0.394587 3.74478
3.27574 -0.289324 3.72234
2.96005 -0.161902 3.60502
3.31986 -0.366998 3.72675
3.49443 -0.460272 3.78648
2.96208 -0.188084 3.60052
2.94687 -0.170081 3.59602
3.14906 -0.288295 3.66348
2.99298 -0.2132 3.60875
3.29514 -0.357389 3.71488
2.94181 -0.168416 3.59376
2.94551 -0.186949 3.59181
2.92971 -0.165371 3.58836
2.96313 -0.202687 3.59608
2.94096 -0.143633 3.59617
3.47214 -0.456198 3.77162
2.91841 -0.162852 3.58315
2.91903 -0.174572 3.58138
3.27928 -0.357941 3.70409
2.92867 -0.19135 3.58196
2.90637 -0.159101 3.57763
2.91527 -0.148113 3.58304
3.43889 -0.441674 3.75588
2.89317 -0.170512 3.56887
2.89317 -0.170512 3.56887
2.89884 -0.175811 3.5703
2.96574 -0.123177 3.60698
2.89503 -0.176898 3.56797
3.28376 -0.362644 3.70109
2.88762 -0.17348 3.5651
2.88762 -0.17348 3.5651
2.88491 -0.166508 3.56477
2.87787 -0.169604 3.56118
3.25755 -0.35041 3.69038
2.88529 -0.178587 3.56224
2.87216 -0.15298 3.56122
2.89497 -0.18742 3.56484
2.87267 -0.164684 3.559
2.8673 -0.160777 3.55742
2.86692 -0.160783 3.55724
2.86671 -0.154929 3.55819
3.24333 -0.343377 3.68416
2.93964 -0.124523 3.59363
2.86437 -0.162375 3.55544
3.09007 -0.266171 3.6305
2.86786 -0.143844 3.55957
2.86786 -0.143844 3.55957
2.85974 -0.168841 3.55178
2.85974 -0.168841 3.55178
3.24479 -0.347271 3.68254
2.86809 -0.181876 3.55247
3.26166 -0.362169 3.68599
2.9103 -0.12523 3.57927
3.20512 -0.327765 3.66697
2.95125 -0.215708 3.57977
2.84862 -0.143944 3.5502
3.29124 -0.377948 3.69343
2.99491 -0.295128 3.58531
2.84881 -0.136761 3.55093
3.0079 -0.240162 3.59765
3.13452 -0.290041 3.64106
3.07021 -0.26432 3.61906
2.84646 -0.177681 3.5422
2.83281 -0.144403 3.54256
2.82371 -0.163676 3.53519
3.23515 -0.343855 3.6741
3.11589 -0.282966 3.63418
2.87425 -0.189102 3.55115
2.83078 -0.137167 3.54216
2.82107 -0.141728 3.53722
2.80966 -0.148527 3.53125
2.80961 -0.16035 3.52883
2.83211 -0.175127 3.5353
2.80387 -0.153051 3.52765
2.82866 -0.134551 3.54133
2.85618 -0.186115 3.54279
3.02949 -0.254335 3.60159
3.11688 -0.286816 3.63157
3.28256 -0.377912 3.68628
2.9761 -0.232254 3.58363
2.81682 -0.169814 3.52958
3.13938 -0.296195 3.63894
2.87991 -0.122233 3.56396
3.17884 -0.312626 3.65158
2.7952 -0.150384 3.52401
2.79261 -0.139472 3.52396
2.77945 -0.148206 3.51691
2.80896 -0.174119 3.52406
2.80896 -0.174119 3.52406
3.29982 -0.390982 3.68764
3.16884 -0.31438 3.64525
2.902 -0.211297 3.55454
2.77048 -0.14287 3.51338
2.76573 -0.159369 3.50822
2.77943 -0.16845 3.51187
3.24435 -0.366378 3.66654
2.80201 -0.178552 3.51887
3.18012 -0.322598 3.64579
3.30551 -0.395647 3.68546
2.75363 -0.145853 3.50524
2.75363 -0.145853 3.50524
3.30352 -0.394998 3.68465
2.88867 -0.210585 3.54744
2.74973 -0.143097 3.50382
3.12791 -0.299487 3.62703
2.76708 -0.16793 3.50603
2.75019 -0.137762 3.50457
2.75019 -0.137762 3.50457
2.73434 -0.149273 3.49592
2.73429 -0.154531 3.49484
2.74187 -0.160161 3.49676
3.25753 -0.374054 3.66669
2.76439 -0.130912 3.51115
2.72635 -0.147657 3.4926
2.73728 -0.163895 3.49353
2.7202 -0.15538 3.4882
2.7202 -0.15538 3.4882
3.11723 -0.300576 3.61966
2.71758 -0.156797 3.48667
3.09556 -0.289687 3.61219
2.70617 -0.144451 3.48403
2.69925 -0.146772 3.4808
3.19971 -0.341745 3.64408
3.20945 -0.352265 3.647
2.6891 -0.147678 3.47635
2.69526 -0.154131 3.47741
2.68955 -0.144283 3.4769
2.70728 -0.135852 3.48545
2.68322 -0.144731 3.47421
3.05988 -0.278767 3.59685
2.76578 -0.180674 3.49965
2.76578 -0.180674 3.49965
3.18873 -0.343539 3.63752
2.69299 -0.159038 3.47512
2.69431 -0.136724 3.47969
2.80858 -0.193664 3.51372
3.08285 -0.29011 3.60368
3.05546 -0.27191 3.59503
3.27305 -0.386352 3.66313
3.1376 -0.315805 3.62044
2.90779 -0.224141 3.54601
2.68888 -0.135573 3.4774
2.73062 -0.173196 3.48675
2.78946 -0.189852 3.50633
2.6579 -0.145401 3.46344
2.84683 -0.2068 3.52519
2.84683 -0.2068 3.52519
2.67905 -0.136577 3.47306
3.24308 -0.375162 3.65171
2.88556 -0.218599 3.5378
2.79638 -0.192534 3.50817
2.79638 -0.192534 3.50817
2.92065 -0.230131 3.54895
2.67618 -0.158172 3.46783
2.57181 -0.159284 3.42181
2.6636 -0.140016 3.4661
3.1317 -0.315102 3.61631
3.16091 -0.333555 3.62524
2.94386 -0.238002 3.55595
2.94386 -0.238002 3.55595
2.74384 -0.179294 3.48987
2.68562 -0.131094 3.47666
2.92679 -0.232728 3.55033
2.92679 -0.232728 3.55033
3.17259 -0.339209 3.6283
2.78521 -0.190929 3.50353
2.65311 -0.141349 3.46141
3.14439 -0.320943 3.61941
2.65264 -0.139956 3.46141
3.05482 -0.282124 3.59079
3.05482 -0.282124 3.59079
2.88635 -0.221949 3.53579
3.12586 -0.313357 3.61224
2.6208 -0.142317 3.44854
2.98438 -0.246269 3.56787
2.91845 -0.233384 3.5453
3.18932 -0.351541 3.63027
2.61666 -0.143017 3.44671
2.74273 -0.182745 3.48746
2.84723 -0.211511 3.52188
3.20216 -0.358689 3.63301
2.62605 -0.139145 3.45028
2.62605 -0.139145 3.45028
2.81091 -0.202415 3.50928
2.81091 -0.202415 3.50928
3.00745 -0.26247 3.57265
2.72742 -0.179886 3.48175
2.60037 -0.143707 3.44008
2.60037 -0.143707 3.44008
2.75025 -0.186069 3.4891
2.73522 -0.182191 3.48411
2.73522 -0.182191 3.48411
2.59904 -0.141481 3.43972
2.59904 -0.141481 3.43972
3.0685 -0.293544 3.59044
3.0685 -0.293544 3.59044
3.16958 -0.344263 3.62072
2.63981 -0.160302 3.4516
2.58808 -0.141701 3.43534
2.82121 -0.206769 3.51133
2.82121 -0.206769 3.51133
2.5822 -0.142672 3.43298
2.61073 -0.136524 3.44416
2.41171 -0.142824 3.36779
2.59166 -0.140208 3.4365
3.01048 -0.269479 3.57084
2.96311 -0.250921 3.55584
2.5974 -0.151754 3.43675
2.57088 -0.141549 3.42875
2.56927 -0.140615 3.42834
2.60256 -0.15373 3.4383
3.19079 -0.35373 3.62482
2.59283 -0.137916 3.43669
2.56764 -0.145887 3.42661
3.00469 -0.269112 3.56742
2.61112 -0.156362 3.44087
2.77884 -0.19697 3.49593
2.68134 -0.180867 3.46006
2.98758 -0.263247 3.56194
3.04364 -0.28395 3.57949
2.55736 -0.140635 3.42363
3.07568 -0.296983 3.58903
3.16108 -0.341327 3.61466
2.64141 -0.165223 3.45032
2.56447 -0.139528 3.4257
2.80491 -0.205413 3.50361
2.68836 -0.174795 3.46593
2.96987 -0.255283 3.55566
2.8433 -0.216316 3.51569
3.0487 -0.288287 3.57954
2.81993 -0.209959 3.50806
2.94664 -0.248156 3.54801
3.08389 -0.304028 3.58994
2.5459 -0.144747 3.41837
2.5459 -0.144747 3.41837
3.13965 -0.33306 3.60651
2.54016 -0.139712 3.41712
2.71203 -0.182711 3.47271
3.16316 -0.34352 3.61279
3.02158 -0.279927 3.57004
2.96327 -0.256315 3.55213
3.14432 -0.343884 3.60725
2.52941 -0.144461 3.41234
2.89483 -0.233614 3.53049
2.54195 -0.146951 3.41613
3.04382 -0.287653 3.57581
3.08108 -0.304873 3.58684
2.82407 -0.212519 3.5078
2.85768 -0.223186 3.51792
2.94696 -0.251832 3.54564
2.50499 -0.138447 3.40386
2.49857 -0.141086 3.40105
2.92872 -0.247159 3.53868
2.94154 -0.251272 3.54249
2.48841 -0.138523 3.39788
2.50027 -0.142899 3.40132
2.51772 -0.145575 3.40708
3.10412 -0.319547 3.58987
2.48174 -0.137982 3.39529
2.92354 -0.246574 3.53568
2.88346 -0.234058 3.52305
2.98018 -0.267743 3.55219
2.90413 -0.240963 3.5291
2.46066 -0.137908 3.38788
2.96163 -0.260722 3.54599
2.83657 -0.222155 3.50709
2.99593 -0.273973 3.55519
2.44936 -0.137086 3.38377
2.83752 -0.22205 3.50721
3.07361 -0.309205 3.57762
3.0083 -0.281845 3.55745
3.09037 -0.316728 3.5813
2.9432 -0.257694 3.53807
2.46116 -0.136277 3.38675
2.8951 -0.240681 3.52254
2.98956 -0.276561 3.55002
2.84103 -0.225215 3.50549
3.03573 -0.296173 3.56199
3.06318 -0.3069 3.56961
2.39247 -0.135979 3.36378
2.38624 -0.135969 3.36158
2.88071 -0.2395 3.51563
2.84921 -0.22993 3.50598
2.36619 -0.136612 3.35583
2.35472 -0.134625 3.35104
2.87326 -0.238138 3.51188
2.87326 -0.238138 3.51188
2.92057 -0.255246 3.52522
3.02564 -0.294634 3.55498
2.35618 -0.1359 3.35143
2.34896 -0.135301 3.34901
2.8034 -0.218085 3.49074
2.3451 -0.135634 3.34776
2.92515 -0.257405 3.52541
2.90782 -0.252081 3.51968
2.92407 -0.258088 3.52358
2.92407 -0.258088 3.52358
3.0017 -0.286838 3.54518
2.9634 -0.273191 3.53413
2.89302 -0.248506 3.5141
2.64323 -0.180255 3.44114
2.94278 -0.266924 3.52716
2.28136 -0.135092 3.32691
2.30376 -0.136658 3.33372
2.96619 -0.275862 3.53182
2.82055 -0.228805 3.48928
2.7746 -0.215113 3.47652
2.7746 -0.215113 3.47652
2.92157 -0.262484 3.51606
2.7906 -0.221041 3.47865
2.87245 -0.248074 3.4993
2.83896 -0.238662 3.48823
2.78272 -0.222082 3.4716
2.77376 -0.22147 3.46738
1.0931 0.303293 2.69363
1.06147 0.443499 2.70676
0.447069 0.501108 2.397
1.08895 0.0653333 2.66024
1.06185 0.44911 2.72767
1.02543 0.0760336 2.63479
1.04429 0.272988 2.68707
1.05811 0.4552 2.73379
1.0433 0.0503766 2.64718
1.05934 0.389682 2.72385
1.05173 0.451672 2.73933
1.05536 0.404776 2.73176
1.05218 0.428181 2.73726
1.02451 0.0529043 2.64871
1.0519 0.360217 2.72414
1.07686 0.0827625 2.68257
1.02227 0.0566555 2.6538
1.04824 0.203473 2.69591
1.04194 0.341509 2.72057
1.04438 0.364941 2.72763
1.07627 0.0877126 2.6889
1.04838 0.42597 2.74566
1.0458 0.403087 2.74168
1.04555 0.367863 2.73552
1.04533 0.109271 2.68376
1.04345 0.443323 2.75076
1.01489 0.0546747 2.65881
1.06837 0.0781671 2.69123
1.02649 0.348503 2.7258
1.04015 0.453062 2.75509
1.03207 0.367117 2.73397
0.457102 0.478772 2.46403
1.06398 0.0723835 2.69503
1.03656 0.10948 2.68998
1.37753 0.146189 2.92426
1.01305 0.363371 2.72995
1.02021 0.274748 2.71596
1.01428 0.0547312 2.66998
1.01854 0.241043 2.71013
1.02014 0.192708 2.70306
1.02411 0.135959 2.69435
1.36883 -0.0733581 2.9955
1.02593 0.1065 2.68981
1.01155 0.24044 2.70937
1.01828 0.23552 2.71307
1.01084 0.0571237 2.67376
1.05168 0.0769507 2.69805
1.0143 0.194126 2.70281
1.0008 0.294676 2.71746
1.00596 0.290967 2.72023
1.02994 0.453072 2.76547
0.99637 0.335968 2.72462
1.01033 0.17241 2.69948
1.02012 0.36764 2.74386
1.01139 0.128881 2.69242
1.0364 0.0625413 2.69525
1.00698 0.384184 2.7465
1.00538 0.0306084 2.67757
1.02922 0.0785238 2.69992
1.00306 0.0365013 2.67938
0.99013 0.375869 2.74089
1.00277 0.0249908 2.67816
1.00277 0.0249908 2.67816
1.0057 0.0117705 2.6784
0.988584 0.0476908 2.68003
1.01587 0.395704 2.76307
0.97569 0.379474 2.74174
0.936398 -0.00113802 2.65078
1.00457 0.415919 2.76674
0.951923 -0.0576712 2.64953
0.952357 -0.0481282 2.65242
0.933066 -0.0056327 2.65189
0.942941 -0.014377 2.65604
0.983771 0.00897733 2.68257
0.984082 0.397752 2.76135
0.929747 0.387582 2.73533
0.95898 0.00321713 2.67436
0.95898 0.00321713 2.67436
0.944775 0.0631662 2.67977
1.00452 0.441578 2.78492
0.971427 0.400827 2.75674
0.921632 0.374503 2.73158
0.765786 -0.178458 2.55492
0.838791 0.366705 2.69235
0.917949 0.021402 2.66514
0.98796 0.424528 2.78029
0.98796 0.424528 2.78029
0.835581 0.304506 2.68318
0.84102 0.250415 2.67567
0.982289 0.454003 2.78531
0.913039 -0.00703181 2.66152
0.916844 -0.0426505 2.65726
0.76381 -0.19017 2.56017
0.942274 0.404655 2.7568
0.853539 0.109409 2.65713
0.931656 -0.0551346 2.66331
0.862778 0.0430045 2.65135
0.867911 0.07219 2.66035
0.867911 0.07219 2.66035
0.96609 0.42624 2.77847
0.824468 0.31394 2.68852
0.841025 0.133034 2.66094
0.924168 -0.0642202 2.66348
0.963307 0.441222 2.78139
0.82272 0.328655 2.69198
0.844164 0.107298 2.65902
0.757727 -0.188574 2.56627
0.816939 0.365412 2.6986
0.851324 0.371001 2.71699
0.967274 0.46354 2.79119
0.967776 0.463388 2.79157
0.894074 0.00269814 2.66887
1.57438 0.0687739 3.04573
0.870981 -0.115549 2.63816
0.750191 -0.187973 2.57068
0.851977 0.386804 2.72663
0.874256 -0.0314676 2.656
0.874256 -0.0314676 2.656
0.906813 -0.0663727 2.66536
0.819057 0.197556 2.67502
0.856211 0.0530932 2.66591
0.803327 0.364268 2.70313
0.808717 0.301309 2.6932
0.929859 0.429249 2.77592
0.828016 0.019206 2.64873
0.86975 -0.13918 2.64101
0.79638 0.360326 2.70247
0.875503 0.419023 2.75135
0.805508 0.20648 2.67887
0.821789 0.0471683 2.65629
0.821789 0.0471683 2.65629
0.789797 0.36659 2.70403
0.796945 0.269343 2.6881
0.824651 0.385067 2.72595
0.863079 0.423872 2.75169
0.938169 0.461956 2.79451
0.814294 0.0518355 2.65673
0.895593 0.429369 2.76906
0.793524 0.202164 2.67717
0.810871 0.0235706 2.65255
0.709828 -0.207398 2.56684
0.782639 0.299396 2.69342
0.805242 0.0462807 2.65532
0.805242 0.0462807 2.65532
0.881109 -0.0787671 2.66765
0.887909 0.42976 2.77023
0.887909 0.42976 2.77023
0.806688 0.00091986 2.65048
0.803411 0.017261 2.65282
0.76397 0.364426 2.70415
0.879599 0.43355 2.7724
0.898879 0.450862 2.78816
0.850429 -0.128056 2.65585
0.893607 0.46086 2.78901
0.778821 0.00503049 2.65001
0.849646 -0.136303 2.65662
0.758244 0.0620845 2.65376
0.798988 0.42048 2.74373
0.798988 0.42048 2.74373
0.782815 -0.0655503 2.64282
0.751503 0.374799 2.71394
0.844821 -0.0853764 2.66841
0.783429 0.415517 2.74079
0.647644 0.214919 2.64237
0.649494 0.201013 2.64108
0.822206 0.435571 2.76456
0.724395 0.0135382 2.63945
0.72643 -0.0205754 2.63718
0.813737 0.43469 2.7648
0.813737 0.43469 2.7648
0.834011 -0.100985 2.67029
0.631942 0.35059 2.66813
0.632187 0.358761 2.67003
0.641632 0.199733 2.64374
0.84505 0.458604 2.78574
0.635578 0.278115 2.65859
0.649548 0.130509 2.63721
0.638097 0.204194 2.64871
0.638097 0.204194 2.64871
0.630291 0.284632 2.66102
0.630019 0.295893 2.66334
0.630019 0.295893 2.66334
0.708721 -0.0139973 2.63924
0.711136 -0.0696982 2.63014
0.630422 0.254703 2.65662
0.6272 0.312947 2.66742
0.826361 0.46781 2.78615
0.626795 0.303504 2.66566
0.626795 0.303504 2.66566
0.70147 -0.0473331 2.6325
0.633887 0.204919 2.65064
0.827392 -0.109396 2.67608
0.692131 0.380877 2.71169
0.702076 -0.068625 2.63199
0.702076 -0.068625 2.63199
0.699572 -0.0621723 2.6327
0.623029 0.287945 2.66563
0.623029 0.287945 2.66563
0.714671 0.407025 2.73281
0.623178 0.191838 2.6521
0.707711 0.419528 2.73479
0.668663 0.380935 2.71009
0.706244 0.401147 2.73067
0.6107 0.366176 2.6824
0.620097 0.252766 2.66473
0.616665 0.275584 2.66828
0.622682 0.186441 2.65375
0.619547 0.208635 2.65764
0.619058 0.196096 2.65535
0.613051 0.266053 2.6666
0.701881 0.41242 2.73427
0.607435 0.331209 2.67877
0.638045 -0.188541 2.59718
0.675813 -0.0163775 2.64337
0.75334 -0.0941879 2.66179
0.639525 0.374934 2.70248
0.604177 0.351438 2.68276
0.694491 0.423479 2.73636
0.654133 -0.0587852 2.62688
0.694724 0.406718 2.73322
0.623163 0.0907408 2.64119
0.608565 0.27074 2.66942
0.617798 0.108427 2.64313
0.635457 0.00145053 2.63187
0.603445 0.260058 2.66749
0.600671 0.358318 2.68571
0.728491 0.435576 2.75808
0.684306 0.418842 2.73591
0.633611 -0.0512633 2.62599
0.633959 0.0563056 2.64759
0.615066 0.369606 2.70039
0.638718 -0.068477 2.62808
0.628254 0.381632 2.70956
0.589353 0.282479 2.67462
0.587328 0.306711 2.67901
0.586312 0.364385 2.68991
0.629946 -0.00801774 2.63888
0.581153 0.15848 2.64944
0.572663 0.198344 2.65432
0.611191 0.00761904 2.63503
0.584542 0.0822681 2.63893
0.625694 -0.0754937 2.62736
0.610052 0.37714 2.70679
0.712098 -0.107487 2.65797
0.57994 0.303315 2.68019
0.575914 0.346855 2.6875
0.569458 0.231818 2.66281
0.738163 0.4691 2.78127
0.626497 -0.0899406 2.6282
0.575941 0.335902 2.68735
0.603176 0.0480337 2.64492
0.605291 -0.0576205 2.62732
0.580967 0.0677434 2.64032
0.628507 0.410726 2.72855
0.576249 0.0181645 2.6315
0.60177 -0.0654618 2.62815
0.60177 -0.0654618 2.62815
0.60177 -0.0654618 2.62815
0.623855 0.420773 2.73074
1.8261 -0.0134443 3.29385
0.614659 -0.0838923 2.63221
0.58669 0.380543 2.70915
0.666049 0.43395 2.75343
0.587402 -0.0590848 2.62659
0.57788 0.0013865 2.63369
0.588065 -0.0147195 2.63614
0.615852 0.416227 2.73019
0.615852 0.416227 2.73019
0.615185 0.424655 2.73236
0.615185 0.424655 2.73236
0.57843 0.375255 2.70779
0.561959 0.0667382 2.64349
1.16086 -0.132285 2.86786
